ply
format ascii 1.0
element vertex 672
property float x
property float y
property float z
property uchar red
property uchar green
property uchar blue
end_header
0.13639938882174166 1.7271114839723423 3.613285396256013 211 149 116
0.10525074313788428 1.7634273573863228 3.5731552454436257 174 101 99
0.07383902319636848 1.8272934118085664 3.569436031270227 231 157 126
0.04058272354868295 1.850585186048253 3.566990841920447 192 112 39
0.06015296749219266 1.8663309749756982 3.5606304797981827 170 83 31
-0.001888760900718803 1.9838315028191584 3.5821662762094584 128 26 20
0.05863519217646537 2.075762507162813 3.55506399835869 219 156 98
-0.15819415431875405 2.1587278687435205 3.5287292550694693 249 206 152
-0.049657140880766976 2.1734927334430867 3.580298166753962 215 153 159
0.06893796905801848 2.1172330692651067 3.5437823113419924 221 149 119
0.015091322345670632 2.1969462948910787 3.5733770897116317 191 123 103
0.012972281252806084 2.2047702210721734 3.5752340332057084 209 147 116
-0.10281174211591804 2.306620502521301 3.569998621478083 240 209 168
0.00660915504462595 2.265948929321933 3.5846106385967067 101 38 28
-0.045366689735957096 2.320198891570426 3.5806620082074523 166 78 70
-0.018452364872894908 2.311176248318816 3.5841912297523706 233 166 128
-0.0420569191345335 2.345588939884225 3.5799339518271838 223 150 108
-0.015599674782331993 1.8833066229351336 3.5758029541507637 234 198 127
-0.1664219255505046 2.205293931804062 3.5093395880984275 198 134 113
0.06871597123053183 2.1680277152955285 3.5447706228136875 236 177 116
-0.027201839802546767 2.2866376692119528 3.5826684814924503 221 146 109
-0.008805533996633669 2.3103508443995033 3.5877190421077967 240 214 214
0.08239097466347489 2.281747073698014 3.560514472744854 207 136 106
0.12521638310254712 1.721207489665042 3.595524846746344 207 138 84
0.1510720469008521 1.7377443693339654 3.625304491814313 227 160 128
0.09789313388868458 1.7702807708049302 3.5751357544481412 126 42 40
0.07646189821063637 1.794921249047638 3.5691607142503763 237 173 117
0.013601611742563299 1.832993568908609 3.5734764012256135 233 167 157
-0.040795035167667686 1.9406776468407905 3.5701919325663463 236 172 132
0.04211067751274313 2.055565145527452 3.5543039616967924 236 185 124
-0.06357698250963266 2.282609447822986 3.585577432918216 175 95 74
0.00609508317029077 2.2511845762495315 3.583152728818849 239 179 132
-0.022198544749396937 2.282296337269635 3.583689653078218 236 192 167
-0.10621465096925314 2.333819959845496 3.5515781026747626 87 51 69
-0.014402800788174247 2.329668122055608 3.587963803742327 163 80 79
-0.05995641429370927 2.333682308436427 3.5778803206630707 244 198 162
-0.13433944560576166 2.232425760125395 3.531571764330561 245 178 137
0.05864572885106003 2.0657611876881243 3.5591346221023765 245 214 121
0.02752525966666884 2.1067248434997894 3.549772157848482 212 124 70
0.16260875446814416 2.105633527939593 3.564517696017733 247 216 162
-0.011451679536007465 2.229662260420818 3.5826742882697618 226 184 156
-0.04079719189426466 2.3716838568064684 3.584902250977337 234 196 110
0.09092923001054778 2.2933856440449145 3.56105930236575 251 209 136
0.08789470997523106 2.350978468633377 3.56435149147141 236 193 166
0.039743227803453775 1.7940666346502343 3.580494113629891 180 99 72
0.039020517556021254 1.7990676466941269 3.5790469068805915 213 188 187
0.034702547298422974 1.8050951558989194 3.579476985623868 221 154 124
0.05375647720315839 1.8540137388695253 3.564991423250042 145 64 44
-0.06309956989740051 2.102804367437078 3.5724630527316017 215 147 106
-0.057625102266868476 2.1026310158439845 3.5728313203188042 230 165 110
-0.02107919527926739 2.1803752869595736 3.5740265422686104 202 124 124
-0.13458631129886706 2.2715934418492227 3.5366389698649043 184 117 78
-0.09245948147499626 2.3425718621481786 3.5652333615054 223 155 134
0.09787872337838359 2.260687495093011 3.563241501147136 197 117 94
-0.04959628213851839 2.3739358390970997 3.578176645822418 136 48 44
0.0758182700787341 2.3690490694249875 3.561848552430303 242 177 119
0.09079353817525065 1.7794449924145517 3.572048537830199 166 77 41
0.07323704640323983 1.8429585011486784 3.5673324619861018 180 93 49
0.08081261538721776 1.8405972115626665 3.5725146932004943 147 69 29
0.06923084912582735 1.8670385899170312 3.567258346608344 200 117 63
-0.04852030758870783 2.0803499089059203 3.573991826392632 227 152 133
-0.15417649024946478 2.219551268881863 3.519912482278398 253 245 246
0.15744330871226114 2.0508117786454076 3.5829427386490025 200 133 108
-0.03684967086550553 2.3004621612123493 3.582395839299654 140 60 61
-0.02178588236527796 2.3220426470108535 3.58333506265346 178 96 71
0.006427277539948665 1.8248676585143921 3.5738441634509615 133 64 50
0.05950548443135278 1.8894733251160178 3.547702936959251 191 116 95
-0.16929593013043287 2.1516560404857703 3.508709052968571 149 61 48
0.08887984266967898 1.9091662611723035 3.562466736691504 176 95 77
0.13028198979811081 2.3705724616017116 3.602751890103949 218 149 128
0.06371542475451998 1.8503512236880102 3.562849440231012 184 112 117
0.0651268592333384 1.8663768438239263 3.5639665861944643 180 112 102
0.03536822746470018 2.089087340308523 3.551609952538782 221 155 139
0.0929514230194169 2.134982361469536 3.559372233699478 162 88 60
-0.04117118068381863 2.2922805581147636 3.5736556667019372 198 120 104
0.10017633980275686 2.200859422695876 3.5671217516527314 148 38 34
-0.01929879729459855 2.303236386343979 3.5843135387984346 229 186 158
-0.015750857539284114 2.34218846024309 3.588204313835444 210 136 120
-0.018197950374334578 2.3529182649406133 3.5903530092405855 126 38 46
-0.14097949883499047 2.268908987305778 3.52886156327994 211 140 130
0.09851198413064617 2.2735399571494614 3.567597487421919 212 134 62
0.1064134674513055 2.1675326953030605 3.5785007319495965 151 91 53
0.10795289618885673 2.238589616062077 3.5761598343701646 242 178 131
0.08853332763619334 1.8199628599062367 3.5767471998722704 222 148 136
-0.15879585101209834 2.184796228857861 3.520464548219356 185 139 152
-0.17564606518241732 2.2078231918618325 3.5146892739164723 243 203 152
0.1100352180091 2.2356880606243354 3.5811155214809607 118 48 58
0.07327535807190486 1.8772569852140264 3.5704378421107594 225 151 109
0.10674342804086542 2.174501277058266 3.5791803894750993 163 120 96
0.1338820891231286 1.7247029083716883 3.6096652620073275 186 114 102
0.09096244074045262 1.789176538217366 3.574647880846805 244 205 184
0.08501157397282338 1.8411047427520066 3.5808495847258888 246 238 229
0.08485761407023236 1.910397000330664 3.558429120297168 189 138 149
-0.14062662072417165 2.2601734440382617 3.53408891777388 234 166 137
0.16285576874547342 2.0640842777959714 3.554766473555338 200 129 99
0.10538882682263484 2.2715452670698015 3.57736447535053 221 143 114
0.11949829739752917 2.323455829221484 3.7724942031456985 221 147 139
-0.21601806372210816 2.1099244628508047 3.492067254587639 208 154 160
-0.20425773408699452 2.1210295766382914 3.5009743538014892 183 108 109
0.09057516211112794 1.9188727716895078 3.5657068465856154 159 80 77
0.15520298146640624 1.7376860791885205 3.620781296869753 153 72 74
0.1548967048671759 2.0513483843131386 3.566946998314403 218 141 111
0.1480114351632515 1.9840194969140517 3.754062673958621 156 73 44
0.11840905600496573 2.330344376704819 3.7564785639355205 166 76 60
0.1339946389255359 1.805490274487914 3.6110201259982087 174 106 65
0.08753905478417463 1.9199581150379623 3.5586342334148036 210 132 127
-0.19930431810290986 2.1551253910721617 3.4974250037245573 155 116 30
0.09277671737851693 1.9702443093386306 3.5856657970664547 141 92 43
0.10804605011682698 2.1597903995172145 3.582320088693197 204 137 133
0.10709688622682861 2.2225585626992044 3.5741541669764008 160 87 87
0.08665260325770761 1.9971088749044068 3.602990410260713 246 208 192
0.11022910860863508 2.192814331398074 3.5867774955685574 33 39 76
0.11343551519495725 2.385033410558553 3.6418841921736296 181 91 63
0.07951715449195723 1.906373514873592 3.5561045329473315 139 78 82
0.09152104798168242 1.9286083259688824 3.5690581139738824 118 47 54
0.04990804886030644 1.9263170330965658 3.673256989864809 150 79 86
0.13213911867622216 1.931234014125401 3.737391289050034 191 116 112
0.08299714357317528 2.0621300685801383 3.5897134377975806 119 60 55
0.11196319659045412 2.201840946226539 3.5897605900255525 204 136 128
0.13918612245246667 2.385125653959688 3.606957547719511 164 85 90
0.10862702880365442 2.17108478723939 3.588965873697878 162 52 41
0.16511349270372594 2.1085853544491147 3.564256810476817 177 108 113
0.09296664652251342 1.9610385421234708 3.590792165625501 147 110 116
0.08493980765297603 2.012906704514513 3.5987600630799803 152 81 81
0.11317132959047291 2.319822821648159 3.7467737413901236 213 167 166
0.09128288466490737 1.9687745405109407 3.5980954051069682 195 133 128
0.0836048966741548 2.031416631833336 3.5930892457264716 228 176 174
0.08322331064053522 2.025163862904945 3.607173421525747 192 119 121
0.08709142014972181 2.075505135451269 3.606139070375786 158 71 69
0.10692554168855742 2.2326354471892014 3.5801411521732294 149 61 65
0.13352723062835659 1.7234034885807317 3.6203686049894768 253 244 240
0.0887275246530966 1.990318390171565 3.5919582213517436 253 238 228
0.0817380013534799 2.006934017987518 3.596821384010753 186 118 112
0.06873302252719395 2.0049619780080894 3.644270039734818 201 132 130
0.08158064696706145 2.029751971011789 3.5966935329718615 251 238 232
0.08223302902636402 2.0564274431138037 3.6081228414788074 246 214 207
0.08671391385772573 2.0694001627709806 3.618261743308882 187 124 55
0.11531266370563044 2.383390303039935 3.6287385843108697 199 147 71
0.08393299474170415 2.0141957115616402 3.6032695548033487 235 175 164
0.08323906977596378 2.054697644033428 3.6027279203823928 255 246 243
0.0907880428210282 2.3192831650674006 3.735863321125195 200 127 70
0.11215342977849083 2.2493275688199597 3.5968919669711825 226 158 153
0.12024040680673999 2.362847650212021 3.6090965367710246 164 89 93
0.061952134626350075 1.9828486339951155 3.65346273524478 255 251 233
0.061582008109870884 1.9983875850292268 3.6481713012732206 140 48 54
0.07831873711342992 2.008374556722204 3.618157136597449 253 232 202
0.10504358873448792 2.1526255547553865 3.593580116284437 174 98 96
0.10687575526693593 2.1886963520122613 3.5987171670557156 209 143 133
0.09137427165680846 1.9482989837594566 3.5938698172686996 196 118 117
0.15168338347641666 2.047129186082055 3.56058917410367 183 119 111
0.08444463580730566 2.066912648917394 3.6045820248250124 195 123 110
0.06962100910170017 1.965859264837495 3.646105267236268 201 125 112
0.06499915740984917 1.9658811641143112 3.6533612943916407 139 57 64
0.07694821023367582 2.2089933789049905 3.720010325432299 158 75 82
0.09142500432669308 1.986970509853524 3.5379297080649454 99 39 37
0.08919614886723841 1.992338236955006 3.5415955418059992 208 137 130
0.06953989302557788 1.943883388503021 3.6434936293294777 212 155 129
0.11596180169881774 2.0245382488823833 3.544884370611712 243 226 222
0.13169732909312745 1.9250354911965772 3.743730941454599 160 109 94
0.0696532375382188 2.063487743227666 3.6522886259334415 254 242 232
0.08432613750750739 2.0723670889266566 3.629371197685477 233 176 129
0.055811201584877575 2.1238594067591294 3.6774184822298026 81 32 29
0.05580396887324503 2.133137064431767 3.7103242818284246 219 149 108
0.07289017212809355 2.1951948720025247 3.71327280438003 209 162 160
0.08338254421693296 2.269827614267521 3.7261407956476122 213 185 188
0.08072174039268613 2.285967256605715 3.7353259154358027 242 218 221
0.05017328594793424 1.9170834733949293 3.6623268361192483 244 203 198
0.10504229652815898 2.0116294159250256 3.539980454300463 178 103 99
0.0716963158562207 2.0356104449540027 3.638159726042342 182 94 96
0.06205923745017758 2.1772049796729243 3.7211461821821468 180 108 104
0.07595398698736862 2.2127564279336283 3.7256782772125105 159 73 86
0.10672509655505275 2.367696462587469 3.620252530838252 145 81 87
0.0862110878946877 2.310591618750669 3.7364769628316536 141 59 66
0.0650337980035667 1.9371781796540322 3.6519871049106425 176 102 89
0.07729283884284069 2.009984061020732 3.626405611129404 157 74 73
0.048894688349686334 2.1179348402155482 3.702164802272102 212 140 131
0.058547334538330144 2.1701255080492285 3.7234986480519088 118 35 38
0.1118927332935492 2.3708315346059976 3.6193635329772107 230 173 141
0.13375858175170607 1.8074125250380217 3.6340167460673065 221 149 135
0.10137110700946841 2.2014255134852885 3.6101989212019436 162 96 80
0.07129878642925909 2.176623439835962 3.7103911229986966 228 176 156
0.07755194839123891 1.9175197151060834 3.62201908992979 190 122 46
0.060363146135953574 1.935705251431399 3.656340661648199 198 154 151
0.08881146944713629 1.9493327492758605 3.556356759035285 249 224 223
0.0884916384070567 1.977625450664697 3.60162408183334 194 139 133
0.06926769983130876 1.9965355579028998 3.634998511084635 201 154 152
0.0792453906062903 2.0507200718110012 3.6339484474114014 184 139 142
0.08647356610721807 2.0863181498214263 3.5983184463874545 139 58 67
0.08334110167500622 2.0835054711585634 3.6366128649028777 198 131 130
0.08662407798847264 2.1454961959507135 3.6177819586509363 186 119 117
0.05632569952659958 2.1766385562890935 3.727733374123392 101 40 39
0.07120135777812697 2.188437151687528 3.707661218441568 134 57 58
0.07803539899612257 2.256311392753961 3.7315879235634544 126 40 44
0.08213165708503234 2.291408048032132 3.7366821074957333 133 57 73
0.07940609506316249 2.3163206155483254 3.747843411091081 222 146 138
0.06567758352672537 2.206528381434505 3.732295402057742 127 68 80
0.07903019665561929 1.9903927395556937 3.6177837414144034 229 154 149
0.10195205718925451 2.1816228373091957 3.605422759562024 126 49 50
0.10930979216089289 1.7105176918998866 3.62012922811669 201 132 115
0.05432346967999396 1.9344914700908373 3.66099644631139 149 81 74
0.05645237117815394 1.945027483060565 3.661583126481484 216 141 134
0.06904062409945641 1.987035860584699 3.642310628061256 173 93 92
0.09156384414610888 2.10803672050691 3.597643394874831 133 44 37
0.093153253463189 2.1226176253899545 3.6024737266234563 152 85 74
0.08906848825886023 2.127851950074274 3.608358643666103 161 92 91
0.09723594682186877 2.1476134492941266 3.6045007916313336 145 76 75
0.0723098206569144 2.1151511552254827 3.6633755738293 171 131 111
0.07428554879181505 2.13463921541729 3.662100023377893 209 186 147
0.07862706720754023 2.1702097833924605 3.630332171041564 243 214 196
0.0664177350630678 2.1613017279585276 3.709965794374421 200 161 171
0.10136659460504001 2.3021513473170114 3.601110918970677 243 195 124
0.07131481572205094 2.211514289141104 3.730611545303153 175 129 130
0.06754549282486173 2.2394559146497466 3.7378471037542047 182 146 155
0.08157946840238835 2.2551478858756067 3.726265868539052 223 185 189
0.0743062839927557 2.2658547838697904 3.737510755539411 178 96 103
0.09469352976333426 2.3207163912485695 3.7690255905629653 165 95 99
0.08413593943342412 1.9830864845531322 3.6096093330279397 127 55 56
0.0764366623456597 1.9821617213694855 3.632582534034139 224 147 142
0.07718311241188472 2.113578765347874 3.653505138788114 126 42 40
0.0430572418951203 2.114755255184703 3.7092699636301014 85 31 31
0.0915718289286409 2.3593673459293516 3.606571370136324 158 94 96
0.07432693365793132 2.327166407222705 3.757790438370142 174 108 107
0.09880877343553579 2.323775556858129 3.771951042601708 213 137 138
0.04141090987333194 1.8927909587779705 3.6614014967530326 124 36 38
0.07339898020833716 1.9557752675195728 3.6403083483986087 180 124 103
0.1488674569388281 1.9584559752692903 3.7529102585692913 181 125 104
0.06702705593994428 2.112474911806241 3.669680170858917 169 95 87
0.06415871604942343 2.1869809279337655 3.724907628738378 192 135 97
0.09594992108780702 2.3681544868921547 3.631350510149334 236 219 199
0.12713911691768343 1.8004695514361089 3.6340358717339525 180 97 50
0.1397726021861986 1.9823844276353653 3.760871216707373 213 161 94
0.05051831704540908 1.9275316012257582 3.6901792529589232 220 187 177
0.07260933477577923 1.9843207678293502 3.6363973720899274 235 195 116
0.09559954563009045 2.1651601947359147 3.610268743981148 248 216 210
0.0496593806481243 2.1100712682838187 3.698562553391195 208 182 172
0.0971155479829041 2.2151032268510247 3.613562324960846 243 226 185
0.09620099116535863 2.249147978324619 3.61362599772557 191 111 114
0.07210649620439734 2.224719393720385 3.7354525491558386 160 94 89
0.09605096642047783 2.3600928744654297 3.6008464395099513 203 127 125
0.08406511910167148 2.261956798738528 3.726994825207514 186 124 108
0.03564275976768789 1.8858964119031334 3.660762619586173 99 80 69
0.09642842259791423 2.3503329873342502 3.598778812165387 156 98 64
0.11081265768298341 1.777146281286526 3.6337026238047683 171 51 44
0.13923428078948027 2.395774719201049 3.584461021337838 169 116 110
0.11319030359023186 2.3749864983782807 3.614123984930742 248 230 215
0.11387853548367341 2.388288524975017 3.6384496215620796 124 53 29
0.04519159367725737 1.9147779610406976 3.6859214212022144 255 253 204
0.025398465123652174 2.1028976833789095 3.7074825543921093 104 99 143
0.10884989066155429 1.7250466248987704 3.6336611727431576 255 255 253
0.09612237746204652 2.1941366651277696 3.6105621476767853 180 104 99
0.13547626426880843 2.3823445620908172 3.6064066435735693 120 52 46
0.15115882087375426 1.943409061452407 3.7364587233721642 194 147 104
0.15058347254897295 1.9846112537997047 3.754679693801027 199 151 108
0.07054284234394703 2.2796119450519483 3.7498605862846435 231 185 156
0.07623465075218086 2.3085443235459726 3.752811433214728 206 136 99
0.16061773394122633 2.0635521309568454 3.5528838264856706 254 244 245
0.06918734974835414 2.246549956981423 3.7422571603744386 237 208 197
0.13273183625620816 2.331895569821721 3.74091158165095 250 233 230
-0.0007495395466962212 1.8260383563108178 3.575458223317574 211 141 128
-0.1728987999649562 2.2040495108074394 3.5554354313225898 218 152 126
0.11971299939740922 1.7231976290376014 3.611597496032782 204 123 71
-0.2312275402891482 2.1325284603576407 3.5125502081526507 162 49 40
-0.22215625845451822 2.161807329901916 3.525137989726941 195 117 106
0.05651608661708778 2.099952913096413 3.673999915022046 232 171 118
-0.1646450362440356 2.2291557576649903 3.5467939689606824 239 195 128
-0.18550995098063006 2.236780814291281 3.5505078333225564 129 77 38
-0.1618497633005178 2.282268912742818 3.5648229849582154 242 222 206
0.1254115915177597 2.383756103338409 3.569136227548712 184 108 45
0.13009791341668323 1.727070077154446 3.614451653265051 209 142 83
-0.21100927716475743 2.1377041941236725 3.5161067875569576 109 67 86
-0.10344595131737808 2.322832519650086 3.592020300294296 163 135 121
0.06421518501784859 2.2605832892812683 3.749946963094453 156 104 95
-0.04360723059951987 1.9312831519836182 3.5755549166482625 225 170 116
0.002138532670631731 2.0765025698139303 3.674362969670239 239 215 220
-0.10294869542211105 2.342698104301482 3.6028783495437633 207 153 92
0.16292073368322993 1.76881847613484 3.6255711554672048 216 168 106
0.0432027181445426 1.8642846827893838 3.6356138112888012 142 64 51
-0.11451613052504289 2.3372200498034945 3.591204731461486 198 129 117
-0.17513505680832844 2.166639740649908 3.522211788311323 229 185 118
-0.1991502900929435 2.1544681321718797 3.533041510232186 200 123 112
0.018233050379638755 2.0517141464489206 3.671043784459124 187 118 105
-0.20610358407594373 2.1465683933037516 3.5301487267260323 253 240 235
0.04072423892263645 1.8355766643762623 3.6272054554549262 215 163 94
0.11097972375317174 1.714402210368388 3.618758783003174 220 120 87
0.059769606902823576 1.8383558952130261 3.630200519394285 174 92 69
0.03496666709610095 1.8430498501372865 3.6308186574966643 199 134 134
0.12063409932315655 2.053820061115053 3.5513682290590913 187 107 88
0.04446366325483984 1.9282063250678254 3.69664016645164 128 48 31
0.05477313978339126 1.9368307100184772 3.702926553471285 194 126 72
-0.05595189809893894 2.031280573645393 3.5781656664164814 226 152 108
-0.03637546369275168 2.030796116375169 3.602791365723564 147 90 46
-0.07304411222862994 2.099228828541385 3.5763338235245032 151 99 58
-0.21286262463859862 2.151933705569899 3.5273189003967946 225 183 110
-0.004604976285741129 2.0602320169569146 3.66462245842413 118 50 47
0.04356720630170265 2.1621559556671572 3.7285514745056454 217 149 118
0.11689354354127612 1.724443617896403 3.620763397984728 144 91 70
0.14072107746092422 1.8314727231874224 3.6229557778869093 217 170 104
0.040980959488343884 1.90843422874546 3.686257886251076 221 179 95
0.039644210099599654 1.9160962730781035 3.6924045416216646 185 116 118
-0.18530561115135097 2.1944687144643007 3.5469754251926258 219 156 109
0.06076630259673931 2.206458336916548 3.7375508048486505 242 180 122
-0.028045984127923137 2.274982807114566 3.645910912825205 194 126 38
0.03181440986630611 1.8594928385426022 3.631230868935283 197 111 85
0.10444858157458389 1.9424350210445611 3.7313234137920883 121 51 24
-0.06395183008980829 2.0073386861052778 3.573787785340257 220 144 116
-0.20123607261113913 2.1463140611905196 3.5273742031027684 163 75 63
-0.05088871697384695 2.3039295164844478 3.627701264120305 197 153 114
-0.14707656921831572 2.3162912560275704 3.5776922280648575 231 179 121
-0.08221070815504307 2.3447353605637082 3.615419724286155 243 199 144
-0.07369859066045166 2.281254518344321 3.586526216264669 214 166 99
0.06736689146297348 1.7380108938293022 3.5850996642864574 152 66 31
0.05084542233425827 1.8023319987691584 3.624753517162966 197 145 80
0.059820108374617625 1.844950875578914 3.631108818491452 160 114 90
-0.02816864162953898 1.9814794208240119 3.6062162390430195 195 150 95
-0.04384683537621672 2.072097507718315 3.605829099336127 209 164 112
-0.06343839276140524 2.3199055781006686 3.62052599251564 208 166 94
0.05750852873110314 1.8197201717210005 3.629308168848432 143 79 51
0.03878877090560329 1.9347045158338507 3.7006335277058033 124 72 48
-0.12347175459914667 2.34725708364317 3.5961596500211366 203 150 84
0.028319514042749884 1.8065367350940391 3.5789222573139665 181 140 95
0.062326690903893985 1.8122777323830288 3.628682897052851 170 76 58
0.13236967361847285 1.9297087630069027 3.745188358310941 203 137 92
0.05520744516287291 1.9521792267352451 3.7189545623347398 242 202 183
0.01284973331642519 2.0227733429515165 3.6645588182611406 247 210 184
-0.22501924687032882 2.118069644796102 3.505156864434326 187 109 94
-0.01689356077395394 2.2678296320877878 3.6500320452744686 148 87 40
0.05414293580365091 1.8014544344379122 3.625949288711718 152 95 38
0.038376115319216204 1.8075166375778922 3.6178223771825646 184 132 79
0.1245879603813123 2.3266481644486006 3.769811540214408 179 119 89
0.08528559687684147 2.3350574548967953 3.790357511479777 227 191 129
0.03154906437421745 1.8358135726369051 3.624143767288153 183 120 84
0.01657325433624235 2.1611160449515374 3.7190420699306292 236 189 137
-0.20077976258536473 2.138222479243331 3.5226652580214357 234 185 120
-0.0571488200843702 2.2405603448646403 3.6084166652289986 173 132 71
0.034727946519699 1.8573183431111204 3.633000287320379 247 222 159
-0.012400581140357145 1.9346786424554885 3.593109980384897 164 103 36
0.006379500858122428 2.04835969199457 3.6672323815804515 199 146 111
0.0016750792864556425 2.0605414658621766 3.669366232075769 157 107 79
-0.01541885442833759 2.0650921298712084 3.6560122427680306 113 66 49
-0.20181964396470414 2.1748365467371156 3.5406127678215014 176 112 62
-0.009653424775915248 2.2477533292319376 3.6541627904879457 247 212 111
-0.03204308537131134 2.267029479258609 3.6387886462855836 181 121 106
-0.07095881982809646 2.3399084348534838 3.618037830909816 222 162 107
0.043698597312020346 2.284784338186971 3.7458723983807554 222 170 113
0.06537179431730561 1.8095445798337744 3.62980248662242 202 143 59
0.13251769805394448 1.9516774082964694 3.7518596838158325 173 93 74
-0.009877684484626937 2.010752518546616 3.6446872508923027 255 255 250
0.033821923343712916 2.046569617051904 3.6697898369855713 165 101 60
-0.0075578019400587265 2.0754104602321157 3.6646096346516055 171 104 48
-0.022375748398274456 2.1140470758994545 3.6660455139794395 194 133 77
-0.015771843087345624 2.2504807363573747 3.650244240569488 168 99 60
0.012338412821340185 2.0617147190560607 3.673267498003703 195 131 101
0.02054337175099666 2.123111288282439 3.712170820786821 192 143 82
0.039555713702033424 1.9591087547669026 3.711881809358291 213 154 101
-0.007879388486629415 2.0452552266722592 3.656374461163348 178 113 41
-0.0071940637288763765 2.0885383148496968 3.6740035871687353 144 53 35
-0.2027560421992406 2.1702246035378105 3.5391078953778736 131 92 65
-0.036715517718964884 2.3033494511416515 3.6384577625449706 166 104 53
-0.11561092969461687 2.360954456621783 3.6015756215771915 179 122 73
-0.01679863310467917 2.3848673044166175 3.6891589492471004 247 209 133
-0.05185688618680803 1.9363892421916258 3.574022909458795 241 216 186
-0.051112219326889995 2.277100333808533 3.6155954329084983 164 108 35
-0.08277883465963128 2.336633001449896 3.611012037129999 202 151 68
0.0010296120695946762 1.9815123730126625 3.651734556919692 178 119 86
-0.024296334251798456 2.0178239486711385 3.611740733655184 247 214 120
-0.03262890724580268 2.0591073048313384 3.5878764362182864 185 133 85
0.006130869897902981 2.163907405422297 3.713618589750686 230 185 100
-0.0885057573021393 2.335710363042213 3.602327948165352 233 190 92
-0.05074394574941014 2.3429196264232504 3.6331532656324192 237 203 194
0.07329338750286922 1.763202535034157 3.6295774230959044 160 81 45
-0.19899113546635513 2.1826548064369513 3.544800220938796 208 133 88
-0.14349238966532596 2.3018124254026726 3.5745337063495985 190 124 89
-0.1766639843972913 2.3003920278830545 3.5649350184464326 253 215 120
-0.10809671648651721 2.342384597125296 3.5944297455192156 193 140 104
-0.12266418922442496 2.344466121763373 3.5936322735627746 202 147 29
-0.09135699663932602 2.3646276567475497 3.6126423622253228 247 229 225
-0.22885682474348618 2.1361614815258148 3.5182397235312677 184 142 35
-0.0386228857596255 2.2866221491441263 3.6360697731615725 202 149 94
-0.17940175351951726 2.2434003505045474 3.5579345531837556 160 83 73
-0.11882208708647501 2.3689288337088255 3.600914412735555 230 183 129
-0.01636560925247091 2.057530076721578 3.650124409136457 225 178 116
-0.2207084744333846 2.143282677298777 3.525713554135503 192 143 119
-0.04239416958968951 2.326380700340628 3.636180578956524 168 97 22
-0.016651014513371473 1.9798804689258735 3.615964346760122 183 124 105
-0.12718206452912495 2.3288369038255654 3.5827952904035505 189 123 58
-0.06280604300118699 2.2427403372082466 3.586545075581806 157 94 58
-0.18901836748612225 2.1735487915216836 3.545011807745391 127 42 27
0.02909081819942016 1.933459485192539 3.6971493420027097 126 60 54
0.15014267556435434 1.982398552236239 3.7534839027940574 140 70 27
0.006033962867539226 1.999326747221414 3.6585094710508455 220 173 123
-0.005492371698820196 2.0143924805773206 3.6511510711864577 208 172 111
0.001315031286709339 2.041688767649046 3.662740260634867 155 101 64
-0.02833254989491976 2.1209662053018223 3.65039373018838 209 154 101
-0.2163564076179644 2.1463926648201626 3.528300085469234 209 141 99
-0.0065710638672055 2.186842110180094 3.687405856450907 172 107 64
-0.04241902449997651 2.2302913660750003 3.617374007543009 132 91 62
-0.05571968058104411 2.2959149105177246 3.6192452675881217 224 180 127
-0.08228444024143529 2.3314953041471327 3.6007034515698937 94 59 48
-0.08836303544660037 2.3393463405822956 3.607998223242558 177 114 70
-0.12448544712490611 2.3370063520228896 3.5880473380885767 178 120 95
-0.13632743340121498 2.348012291226697 3.5871981459348534 130 61 59
0.012698634133067002 2.17269594738506 3.716457087807609 146 151 194
-0.21134609788111847 2.1760442438396255 3.5358644734796223 188 124 117
-0.03850650826191412 2.2439477987090153 3.6294933540550334 186 124 30
0.04521718648134648 2.28191530147873 3.7442144201099055 224 160 115
-0.009852899784788219 2.019657318456328 3.6466205903000044 175 142 117
-0.020413470145368026 2.06476031673891 3.6456932344808566 116 47 22
-0.20923369946491002 2.1583601240030488 3.532665930978315 142 125 133
-0.029847450021992884 2.284530878064219 3.643227527789172 209 158 104
-0.0926682851789136 2.3321168718876293 3.597411555577702 152 80 50
-0.07603394033198818 2.333565893093109 3.614069914825829 196 158 70
-0.0030845766677396616 1.931625617985682 3.6482172661925305 175 125 35
-0.23349260164389044 2.141558063065568 3.5194606990139836 183 118 39
-0.13691913138181253 2.3385426899116086 3.5856997708253306 248 218 147
-0.009873021282002308 1.9595834371363432 3.6337915472368714 241 199 125
-0.02564992250989198 2.053745498205163 3.61258865625277 237 200 114
-0.044771594815870536 2.279180337089957 3.6265994913033732 219 163 79
-0.08750047579318965 2.3096976828297993 3.5955060782628796 182 115 37
0.02333918989016095 1.8354606060966787 3.6148738662863225 181 98 48
0.14811931129624867 1.964551063608725 3.7521857631862314 178 120 23
-0.01030622674521802 1.952961323961235 3.6299250001725243 194 137 59
-0.00031899109778089137 1.9527377777598598 3.650934761188852 156 75 49
0.0008794636189699719 1.9679804375309187 3.6506692614295257 189 150 77
-0.07300624541050212 2.094326479889173 3.575516990702766 182 142 112
-0.21804451719532053 2.1652805259237895 3.528329645090417 194 138 97
-0.026437177352906172 2.269662182682625 3.6436621544472123 234 184 118
-0.1458491844384735 2.2540795528016355 3.555221938516235 194 124 65
-0.18471125974927585 2.24503387653963 3.5554738195169118 140 74 65
0.044756867960836215 2.301329941560918 3.739864610366796 195 144 75
-0.04581598645396015 2.321476435738353 3.634725072361298 222 168 105
-0.1709705033460662 2.323066087495285 3.5670451078692933 179 119 87
0.003803641452010068 1.9731633793131336 3.655696215447174 170 118 79
-0.0004858346075498687 1.990238228660853 3.6533703601789234 207 151 109
-0.015674002010647288 2.0007528775026233 3.6307031155032425 215 158 78
-0.014262368960439 2.010155004803807 3.6299285903181664 183 138 97
-0.022790206992080474 2.082611076300633 3.650021370566143 168 94 41
-0.010417674631175043 2.085187014298226 3.6663735560702637 189 124 87
-0.013795043916697789 2.10242809983601 3.6712971683642674 158 93 99
-0.015274094990622046 2.1449485836767685 3.6801167584470327 134 138 198
-0.06141441056365988 2.1660776372424904 3.582031833470655 244 210 127
-0.036040162652448124 2.2705649947367985 3.638491319649831 103 32 20
-0.18779863966076998 2.205394795550555 3.5476110607955587 241 190 166
0.05184902750388186 2.3022165174596525 3.7472267795717524 87 44 67
-0.06698012865066522 2.3207964252934614 3.618835651391769 211 168 86
0.0621953084295138 2.3590068331276277 3.7579392392410087 203 153 72
-0.004472670752493311 1.9063476151088237 3.604531159951878 144 68 42
0.008068623994061337 2.1470586421944717 3.7099412124659885 230 176 103
0.019409298314728932 2.1806855399781724 3.721415537707274 179 102 41
-0.03220606459756893 2.233619207862602 3.6339424832685485 186 119 32
0.05579451942192531 2.3458209926950455 3.7470270815778832 184 126 70
-0.010734405329193706 1.9313851535316318 3.608640594362894 220 181 120
-0.01860105800225121 2.044247148562288 3.6389538009339164 221 160 120
-0.005158656918135771 2.0300641418782215 3.6549592667449873 225 173 109
-0.03086013509644596 2.115769804687536 3.6460673906768775 228 178 130
0.031126238416892122 1.7995113648334609 3.609717615418728 187 134 96
-0.012788418624355246 1.950214088071019 3.6061896208442605 154 92 75
-0.014927735776919651 1.9897201336844696 3.5584994715940197 181 131 84
-0.014408205432626891 2.0457361443203546 3.6473228988549624 106 61 54
-0.022437044495825405 2.059510737453313 3.6199365602797626 138 94 60
-0.03221063944513482 2.111019602311531 3.62484969038146 215 161 74
0.00241315818053872 2.1248981676138867 3.701785467366192 238 202 117
-0.028203118151550743 2.1808566232317106 3.6455673166391853 240 202 117
-0.2251274030272292 2.1609740766778436 3.524430868467252 179 140 90
-0.17565324746944871 2.2923125625044394 3.5643135527549523 188 134 79
-0.1040533154760812 2.3871434973564813 3.600262089975415 118 48 21
-0.01134722027443209 1.9778737666504373 3.633996637065708 185 148 118
-0.0035864309048986107 1.9864745633808727 3.6484933743352723 204 154 61
-0.016643390236471867 2.0667155852421724 3.6525360332975745 198 155 98
-0.005908796219840791 2.1570256564396826 3.695900509077334 138 66 39
-0.02902906040632996 2.1554547719941444 3.649277883288127 215 179 130
0.01859799286868021 2.214731594226121 3.713522454644162 158 104 72
-0.1756948020988223 2.161171581732613 3.5365360532770453 235 187 91
0.07383473592014954 2.3378574295475723 3.7744874601884333 201 132 70
-0.19760375666290853 2.2188758926153462 3.5446489927549365 178 117 73
-0.16496263964068697 2.320177021470316 3.5742706334861953 174 104 31
-0.000349014839579887 1.8937502880741741 3.626334873048021 175 107 20
-0.014488523372827583 2.1345013729552473 3.685031041409113 161 101 52
-0.0185014586345038 2.150219255426872 3.670165894150743 188 127 31
-0.012165348871918807 2.1552270764310126 3.68570102180657 198 142 76
-0.03658846860186121 2.198828338818807 3.620871790370598 229 179 84
0.015137921404163354 1.948877138559659 3.687838149836979 174 125 23
-0.031200386778570184 2.105549901154124 3.620793101888499 200 137 80
-0.00395209370450855 2.1358470898311093 3.697344678423263 221 178 102
-0.1875213741696818 2.2844882401733284 3.5534641604615786 237 196 136
-0.002659371757407359 1.9044555671463164 3.5813608408521467 215 166 109
-0.010304263578168625 2.129539586723935 3.688521824030187 182 139 68
-0.029766454235322443 2.0996141220953164 3.6370954643762254 166 116 52
0.1265570185931741 1.972337846021307 3.754250052170871 193 147 89
0.10287847979228357 1.9756455299472901 3.7379885019359027 134 78 41
-0.011152429294906447 1.9986758517368466 3.6398712201523966 116 59 38
-0.0020768337795718903 2.115645601628643 3.6936229694721963 142 68 57
-0.03230516450130682 2.130267336204094 3.639139011708841 217 160 107
-0.020301778760702893 2.1341183943174022 3.6629861150188554 171 107 61
-0.009828832219615136 2.1505353075399696 3.6900558242428003 228 174 121
0.025729243950039254 2.235359030620348 3.7109839952028825 212 160 100
-0.18158079180764441 2.1701182501475706 3.5481910394247835 255 255 255
-0.040478825158512255 2.276485666392227 3.633575480499227 254 239 142
-0.13535879518008753 2.2832669028368526 3.56458074144584 163 118 100
-0.1933651056075183 2.2557927431279046 3.548080397598333 160 87 45
-0.024938265472119678 2.0561095208207805 3.6167877454058517 213 159 88
0.002062045063011923 2.135774446933408 3.704590770368326 188 159 115
-0.018144409841512353 2.1346706081709286 3.6687336148067744 211 159 79
-0.031574078546393804 2.132549096693381 3.6452108634374505 186 144 74
-0.03474148832929922 2.1875757727162433 3.6293075147752973 129 58 32
-0.04979329339687161 2.3032489297168555 3.626188275993741 242 203 119
-0.009474033396258096 1.979656653113015 3.6398169943650713 234 190 95
-0.02723996669731176 2.1002147096877484 3.6478480154436723 196 133 64
-0.03160177298767423 2.153551419727518 3.6432592686523027 182 124 26
-0.033978828749841566 2.1772477651332784 3.6321712343120054 161 105 26
-0.002503539118652746 1.9037509430471005 3.642897179924758 177 98 91
-0.013797217845496928 1.9630981480986782 3.6232302482562826 238 200 134
-0.037165613847686046 2.160241146880696 3.6203212869164414 192 129 35
-0.20091170666698727 2.2272710849276454 3.543441129226673 175 107 24
0.06689917723068016 2.375257488725778 3.621228655477179 212 164 109
0.028432995060948974 1.8031323945079363 3.5813626296527667 202 138 45
-0.013762852929341826 1.9702950086194577 3.6113833904318726 232 186 98
-0.021810823559911752 2.0441811225413113 3.613989570121591 242 208 124
-0.010755932726715694 2.119428281590571 3.6846064423745997 219 176 75
0.007725556174499579 2.1685302731343086 3.709625727831508 182 120 24
-0.014293522568523988 2.167846465749419 3.676737006923236 200 149 36
0.008777407882640262 2.18930211311484 3.707900295556601 231 194 120
-0.03798180562851991 2.183112059168644 3.6202836964245204 216 162 76
-0.03494979310357074 2.230426978474401 3.624038282793528 173 125 54
0.12621109937718744 2.320913466738904 3.7677251904555993 113 67 24
-0.04964311631846175 2.230879912452666 3.610431150131902 153 88 60
-0.04868868159208706 2.2694583237847104 3.5989175902728103 203 144 78
-0.20259343241341218 2.2131915560880135 3.538528752524924 184 119 71
-0.06586105876887467 2.310640896221793 3.610488579488599 164 83 75
-0.03871756412446045 2.0282203666316487 3.6051258901348997 210 150 74
-0.020527730086665297 2.042294981426303 3.62989817072674 235 190 114
-0.023834957478042377 2.0676277055017844 3.638858689492371 176 112 42
-0.028169441570516925 2.1018563952110414 3.64435838105495 144 90 46
-0.03354519468430002 2.213957781235048 3.6293551377537723 106 69 38
-0.03844124177522777 2.2204299744145186 3.6088163816203225 214 160 71
0.06030534216901462 2.3546310393196883 3.7507344082109415 178 100 29
-0.056164437558288545 2.297314802085107 3.620947633484701 156 104 54
-0.017729607786276507 2.027040371095582 3.631343633846865 195 137 76
-0.018588399944301448 2.1569247323668628 3.6691487720400073 194 129 84
-0.03405827822216262 2.1386871836922507 3.6330540661894677 232 186 105
-0.03340026897823017 2.164092537014791 3.633770760945316 249 212 126
-0.025374429438231857 2.086324519930037 3.6442850747288693 248 228 134
-0.03114938836081364 2.1069306050536034 3.631295139941309 142 80 73
-0.1833374332330465 2.402301398504263 3.6833531931383208 247 227 112
0.051132642927055466 2.3357638370572245 3.7421460528617776 246 212 116
0.014389864288306967 1.8454739347565907 3.5961362119067846 223 172 86
-0.014819285177052494 1.9876841643861458 3.624008123684756 220 162 100
-0.022590211197964945 2.062866211383983 3.6321766062144483 242 201 133
-0.02160650071240999 2.1406524500732513 3.664995390629896 175 115 25
-0.03319791475837304 2.1726699745997977 3.630913088341499 251 201 129
-0.07388930328525964 2.310611617855329 3.6041610322535407 187 143 60
0.007651972967612387 1.9446661176987836 3.6758486796962204 227 188 116
-0.011984970719666484 1.9569792925976996 3.626901215710463 163 116 66
-0.02839538906428314 1.9894651665875214 3.6057557671305873 187 126 57
-0.031852393900876914 2.14691061390436 3.6414602763556516 194 125 46
-0.03980493723570575 2.215888979634707 3.5933725221628103 229 184 106
-0.0022118286955651032 1.897999156871086 3.620292803663543 134 57 28
-0.02489921014919261 2.0606284913972175 3.6249486577168923 121 64 75
-0.03427787451669564 2.1408793273560467 3.627350588432105 177 104 29
0.03283373401771125 2.2543034522455487 3.713133598275461 158 84 22
-0.02674249927146087 2.0730125907753107 3.6416431520412225 250 219 135
-0.008048210425372805 1.9297037938510107 3.615882173526716 240 189 136
-0.011552864157650075 1.944774485764169 3.6248561348209236 231 189 116
-0.01960095798879949 2.0236095295490664 3.6236218993028317 237 188 108
-0.00564086461242651 1.9167016570598692 3.637867189488297 161 103 36
-0.012305208119219153 1.948414714554599 3.6317115276315275 211 161 61
-0.0165092091479915 2.1364199557400707 3.6795548743478017 160 83 25
-0.0025137727753326987 1.9204941741307928 3.6514203557647633 176 129 54
-0.006223311235983827 1.913964331224058 3.61473007464193 216 164 94
-0.018337005438131156 2.016283969904838 3.6197105139732386 167 95 42
-0.005566934301016526 1.9141982123080432 3.6215812226267268 179 113 66
-0.0030274369872922927 1.9146293399078338 3.6006754910012617 207 157 109
0.016600584053697794 1.9319772868655962 3.550914424902558 123 71 30
0.006581117420872863 1.959167819217059 3.561961535536928 207 141 106
-0.03268363266605764 2.1130814650224554 3.6223809261454085 155 88 57
-0.03788744581593017 2.193846714304683 3.6075042039395244 107 45 38
-0.03632580169393828 2.2080437081817728 3.6189546373552113 225 169 66
-0.006178132278647353 2.117688566850695 3.5629217646302354 174 113 23
-0.183892154733079 2.3090216858360275 3.553982239443002 218 164 67
-0.04418892842861442 2.137737352141064 3.58981680701373 228 182 88
-0.008548242108564792 2.108820168778021 3.5638029600783065 219 163 71
0.05003444686390149 2.3561702951022343 3.729729470727223 232 179 103
-0.1919403131059577 2.2952928330317843 3.5521533663445686 188 125 54
-0.012678163046660446 1.9469943608649551 3.6209255599907513 160 102 58
0.037707555702199615 2.1172159012423357 3.536537232442119 232 187 140
-0.02580224770488051 2.115609645532693 3.574029900209076 87 42 22
0.0007383313594665649 2.1215465163248783 3.557378150610268 138 64 34
-0.19554413177101088 2.2671356805320975 3.5421682548679034 138 75 60
-0.01074601310253337 1.9362208549745838 3.6220457722652752 121 53 55
0.01718885376892208 2.0181287403325388 3.5541268083699693 240 207 99
0.15778235842393856 2.1012287784092947 3.548018132851948 237 191 121
0.018181593554973632 1.9535855434054616 3.55210513219632 209 162 107
-0.017483840904011925 2.071256482037722 3.5814404087259226 185 124 65
-0.032510048321062086 2.057914358627908 3.6055359964493627 213 167 72
-0.008260486756025302 2.147994597630917 3.5678062404709356 135 68 24
0.05258339398741247 2.364913622876501 3.562552496368671 240 191 145
0.12617099865988876 1.7004404181274833 3.590076703737648 254 220 140
0.02740957876935994 1.8054381415371943 3.5795242439108157 151 78 49
0.02127037798154709 1.9091009047863878 3.5532351528879738 217 156 107
0.028124729474590087 1.9145891091717422 3.544050119793281 128 62 52
0.04143406667672042 1.9193904828071537 3.5358209908327645 200 134 92
-0.014590972962299229 2.1085164898960183 3.5697392747289296 174 126 104
-0.015909695684589317 2.1549070105341896 3.5736591176014527 143 76 42
0.06415986633988734 2.280119481140642 3.553457167317999 139 73 57
0.06312923133242229 2.2877456980789774 3.5543784620468237 138 84 75
0.010346947401321761 1.8512505302071165 3.5949167551639922 252 226 141
0.020850079596232685 1.917395536519393 3.5514955814579103 238 188 105
-0.010256903522868645 2.1195171527194585 3.567895889090284 225 174 109
-0.03568227561807432 2.2028080980344624 3.5948143134343074 142 55 23
-0.0035542680055750428 2.2068302774117723 3.5720529970144552 210 153 51
-0.2463926105810052 2.1257553606857895 3.499964139164524 245 210 116
0.08734097693573865 2.298047354910621 3.5496786972623173 236 178 98
-0.18218194658836356 2.282626318297548 3.5347286968965466 254 218 130
0.0634467893715694 2.3750766619413954 3.5553294419612196 252 211 118
0.031522442079555256 1.7920598883672167 3.580136207068889 142 87 53
0.055482661479073624 1.8863849714943244 3.5437864988125005 178 116 32
0.04270617355722674 1.8924394298830847 3.5401790618132964 191 127 59
0.04586952364228821 1.9017507184792264 3.5372330486825287 237 192 111
0.03323225736876188 1.9146603293905602 3.538336508629409 189 130 62
-0.0003943531079775101 1.9326785127082473 3.5787421603647878 120 53 39
-0.006059575620649902 2.05356230552286 3.5660423561846977 183 110 59
0.00792348064176615 2.0531925047838815 3.5569207176295827 205 144 80
0.0017029793982067333 2.0564410132027278 3.5613951009675984 174 98 29
-0.006575825763769931 2.0699095565844097 3.563721589849893 200 135 76
0.009863454344320078 2.125491386561227 3.5491482689797755 133 49 29
-0.0093501204659249 2.13558963682624 3.566153412921326 179 122 77
-0.0036702885822544086 2.1374447560587715 3.5596358047738113 141 69 82
0.027609642048840952 2.153600758273881 3.5435857770186066 199 139 66
-0.014109223550662325 2.166848086736524 3.5727789215874126 235 193 118
0.023066390361648814 2.16060513506404 3.5482473566436017 176 113 62
-0.004801474159538454 2.172972016319377 3.5686260178917877 171 100 40
-0.02845024294755518 2.2647054115350382 3.5822996779890017 176 104 38
0.06117857282318325 2.2920424917781443 3.5551596583957874 232 178 126
0.06076104235701731 2.3036101143393855 3.5553633628301884 246 200 146
-0.05530831684483718 2.3081838970765785 3.5834653855662095 215 158 108
0.08079250319235952 2.3276119321875455 3.5529898893281255 156 86 41
0.06692622056570342 2.340067744619282 3.5555418107706567 243 203 134
0.025824754423654117 1.8153391377100605 3.5803834382734725 92 63 91
0.026018534118409674 1.8565613230821048 3.562303376308846 161 83 31
0.03689142581235739 1.8712432638556034 3.5551975143397807 174 108 48
0.028202199323102573 1.8853448481835695 3.5524146526884657 202 144 86
0.0313270657934416 1.9383656131120923 3.542229055403415 243 189 141
0.024482322438010563 1.9545277526767784 3.5475422688177876 153 74 54
0.011986499249465656 1.9643339718628106 3.556970573076067 211 152 108
0.017334451451042773 1.9684687557020837 3.5527764484213873 199 132 95
0.009798804184185302 1.9733113232304393 3.558050112048332 231 171 127
0.03930500500208949 1.9795578254423414 3.5440052182463857 190 128 90
0.06524373871636757 1.9921235216772233 3.5116938617811964 184 116 78
0.009110086158219299 2.0053176085562687 3.557438727723293 222 162 98
-0.0009324515567850372 2.0372421565681083 3.5627293701831304 175 108 80
0.007128210713690296 2.044843100751599 3.5561090486321536 202 137 105
-0.006462949368832474 2.080861921728134 3.5659446512366095 177 115 101
-0.001041339959331507 2.083211441702629 3.559662297779072 182 118 82
-0.0012957775543987896 2.0986119750188523 3.560254337488665 182 114 84
0.03034993164166479 2.1118247418578515 3.543253138738504 182 123 98
-0.04352228428912892 2.123940797153141 3.586894812972029 148 72 37
-0.011948463512825202 2.1239045109542274 3.566875558392338 172 114 79
-0.0029873606888902978 2.132086509716805 3.5586837765791572 114 40 25
-0.020520977058071228 2.1541404081256 3.5832802686927385 220 170 113
-0.0025747517428436526 2.1510042655735018 3.5613340127596342 158 74 42
0.019725524388237586 2.1548126410570627 3.552143813459712 175 108 98
-0.018429787194030278 2.1777270505302564 3.574964501828754 179 118 87
-0.006400491568333112 2.180738674174287 3.5686136454768587 221 165 102
-0.014716568706578077 2.1877171103238524 3.5747935387591743 164 96 77
0.037393451994772904 2.183668852796897 3.5439534947496387 207 148 94
-0.0015643934527331542 2.2018639160449838 3.571671403311395 177 116 59
-0.021440487081163306 2.2204124899074755 3.5807425865174007 182 126 67
-0.05047239765987734 2.269019348095735 3.5895945057706524 186 119 78
-0.05540957704775903 2.2866870197066365 3.573235024133615 169 87 78
-0.06825267917497356 2.300350500050039 3.5856271798782773 174 103 58
-0.07124610245005605 2.3420090187049283 3.5725942868499088 156 89 43
0.1102901770914416 2.3648681022903415 3.552204631711701 152 84 52
0.06859198890110277 2.362759723041729 3.5514619537120216 146 88 60
